8.630230903625488281e+00 -1.976752853393554688e+01 8.754023551940917969e+00
8.521426200866699219e+00 -1.983649826049804688e+01 8.849248886108398438e+00
6.230153560638427734e+00 -2.080323410034179688e+01 8.845072746276855469e+00
6.344970226287841797e+00 -2.080869102478027344e+01 8.980811119079589844e+00
4.566825866699218750e+00 -2.093413543701171875e+01 8.546348571777343750e+00
4.257074356079101562e+00 -2.094026374816894531e+01 8.374645233154296875e+00
4.420783996582031250e+00 -2.094632530212402344e+01 8.385494232177734375e+00
2.901267766952514648e+00 -2.118827056884765625e+01 8.698106765747070312e+00
2.357321739196777344e+00 -2.141529655456542969e+01 9.589938163757324219e+00
2.239389419555664062e+00 -2.153412628173828125e+01 1.005008602142333984e+01
1.885662555694580078e+00 -2.154222488403320312e+01 9.972562789916992188e+00
1.992194533348083496e+00 -2.146218872070312500e+01 9.604831695556640625e+00
-3.841077327728271484e+00 -2.133450889587402344e+01 1.105015945434570312e+01
-6.086663722991943359e+00 -2.065342521667480469e+01 1.026337337493896484e+01
-5.996585369110107422e+00 -2.069450378417968750e+01 1.046684551239013672e+01
-9.335935592651367188e+00 -1.886780929565429688e+01 1.106158065795898438e+01
-9.204918861389160156e+00 -1.898811721801757812e+01 1.070096683502197266e+01
-9.086168289184570312e+00 -1.907575988769531250e+01 1.039803028106689453e+01
-8.984717369079589844e+00 -1.914279174804687500e+01 1.014450073242187500e+01
-1.157577323913574219e+01 -1.811181831359863281e+01 9.296710014343261719e+00
-2.147778892517089844e+01 2.886353015899658203e+00 1.036428165435791016e+01
-2.131713294982910156e+01 3.071113348007202148e+00 1.047277545928955078e+01
-2.099183845520019531e+01 3.392823696136474609e+00 1.066802310943603516e+01
-2.115237998962402344e+01 3.242083311080932617e+00 1.057807350158691406e+01
-2.225446128845214844e+01 4.228391647338867188e+00 1.118752002716064453e+01
-1.648649406433105469e+01 6.292728424072265625e+00 1.144657325744628906e+01
-1.660536193847656250e+01 6.162401199340820312e+00 1.150388526916503906e+01
-1.674562835693359375e+01 6.030261993408203125e+00 1.157588386535644531e+01
-1.690018272399902344e+01 5.893313884735107422e+00 1.161941909790039062e+01
-1.649615669250488281e+01 6.039156913757324219e+00 1.118243980407714844e+01
-1.664077377319335938e+01 5.873084545135498047e+00 1.121711254119873047e+01
-1.678855133056640625e+01 5.719085693359375000e+00 1.124077892303466797e+01
-1.617613410949707031e+01 4.676464557647705078e+00 1.050928401947021484e+01
-1.646525573730468750e+01 4.666530609130859375e+00 1.071000862121582031e+01
-1.631720924377441406e+01 4.671798706054687500e+00 1.061625385284423828e+01
-1.510101699829101562e+01 -2.207734346389770508e+00 1.059393501281738281e+01
-1.433162307739257812e+01 -3.781164884567260742e+00 1.093148994445800781e+01
-1.438937759399414062e+01 -4.061922073364257812e+00 1.117918395996093750e+01
-1.413456630706787109e+01 -4.086714267730712891e+00 1.115084266662597656e+01
-1.385593128204345703e+01 -4.106901645660400391e+00 1.109923744201660156e+01
-1.352875137329101562e+01 -4.124943256378173828e+00 1.101764106750488281e+01
-1.203163433074951172e+01 -5.343991279602050781e+00 1.081605815887451172e+01
-1.201848697662353516e+01 -5.444594860076904297e+00 1.090539741516113281e+01
-1.191853237152099609e+01 -5.654930591583251953e+00 1.089013099670410156e+01
-1.182897090911865234e+01 -5.814253330230712891e+00 1.079109573364257812e+01
1.120954513549804688e+01 -7.882724285125732422e+00 9.053262710571289062e+00
1.359752845764160156e+01 -4.154768466949462891e+00 1.065027427673339844e+01
1.412873268127441406e+01 -3.732921838760375977e+00 1.078081321716308594e+01
1.391757869720458984e+01 -3.923707723617553711e+00 1.074188899993896484e+01
1.480124378204345703e+01 -1.518645763397216797e+00 1.067916584014892578e+01
1.464354515075683594e+01 -1.439834475517272949e+00 1.057504272460937500e+01
1.472515392303466797e+01 -1.384160399436950684e+00 1.063812351226806641e+01
1.430114078521728516e+01 2.103312015533447266e+00 9.822072982788085938e+00
1.426461124420166016e+01 2.211110353469848633e+00 9.614038467407226562e+00
1.449866294860839844e+01 2.634896039962768555e+00 1.001185703277587891e+01
1.640746307373046875e+01 5.251387596130371094e+00 1.086915111541748047e+01
1.598447608947753906e+01 8.832157135009765625e+00 1.065382480621337891e+01
1.595315074920654297e+01 8.877704620361328125e+00 1.055278682708740234e+01
1.604107284545898438e+01 8.618146896362304688e+00 1.082888031005859375e+01
1.601209640502929688e+01 8.748233795166015625e+00 1.074399280548095703e+01
1.599692726135253906e+01 8.992383956909179688e+00 1.080282974243164062e+01
1.600208663940429688e+01 1.013699436187744141e+01 1.051292037963867188e+01
1.604453659057617188e+01 1.015022659301757812e+01 1.066460990905761719e+01
1.607142066955566406e+01 1.014227294921875000e+01 1.082913112640380859e+01
1.608691215515136719e+01 1.037157154083251953e+01 1.069281768798828125e+01
1.600840759277343750e+01 9.967949867248535156e+00 1.062989234924316406e+01
2.330295753479003906e+01 1.608004760742187500e+01 1.386890697479248047e+01
2.404312515258789062e+01 5.076251983642578125e+00 1.058866119384765625e+01
2.281849288940429688e+01 3.786720752716064453e+00 1.015369319915771484e+01
2.267761230468750000e+01 3.774874210357666016e+00 1.019980812072753906e+01
2.236623764038085938e+01 3.480307579040527344e+00 1.020626163482666016e+01
2.206557846069335938e+01 2.996087551116943359e+00 1.026131534576416016e+01
2.193294715881347656e+01 3.176660060882568359e+00 1.030199146270751953e+01
2.233080291748046875e+01 2.560194730758666992e+00 1.017972087860107422e+01
2.219547653198242188e+01 2.787399291992187500e+00 1.022152709960937500e+01
2.037043762207031250e+01 -4.153042793273925781e+00 1.005714988708496094e+01
2.050947189331054688e+01 -4.076679229736328125e+00 9.950781822204589844e+00
2.037914085388183594e+01 -4.009179592132568359e+00 1.011744785308837891e+01
2.065996742248535156e+01 -6.068346023559570312e+00 9.546639442443847656e+00
2.057698249816894531e+01 -5.884368896484375000e+00 9.664421081542968750e+00
2.035341835021972656e+01 -5.430201530456542969e+00 9.920619964599609375e+00
1.672462272644042969e+01 -1.370826625823974609e+01 9.685678482055664062e+00
1.680876541137695312e+01 -1.351122760772705078e+01 9.739763259887695312e+00
1.682004928588867188e+01 -1.330070686340332031e+01 9.901199340820312500e+00
1.669699096679687500e+01 -1.390734577178955078e+01 9.536228179931640625e+00
1.664972305297851562e+01 -1.383050918579101562e+01 9.862881660461425781e+00
1.641837310791015625e+01 -1.454870605468750000e+01 9.537560462951660156e+00
1.634341812133789062e+01 -1.471958255767822266e+01 9.508575439453125000e+00
5.292119026184082031e+00 -2.098133659362792969e+01 9.657054901123046875e+00
5.058680057525634766e+00 -2.095990180969238281e+01 9.263008117675781250e+00
-4.455229938030242920e-01 -2.182780075073242188e+01 1.016714286804199219e+01
-5.409194827079772949e-01 -2.182734680175781250e+01 9.997381210327148438e+00
-9.026746749877929688e+00 -1.910679244995117188e+01 1.069992256164550781e+01
-9.086270332336425781e+00 -1.907099914550781250e+01 1.091138267517089844e+01
-9.145807266235351562e+00 -1.902092170715332031e+01 1.113745594024658203e+01
-1.475965785980224609e+01 -1.498315811157226562e+01 8.451225280761718750e+00
-1.479380035400390625e+01 -1.486623573303222656e+01 8.613069534301757812e+00
-1.484997463226318359e+01 -1.468287086486816406e+01 8.689652442932128906e+00
-2.140258407592773438e+01 2.580078125000000000e+00 1.042438602447509766e+01
-2.202948379516601562e+01 4.243522167205810547e+00 1.121710205078125000e+01
-2.296341514587402344e+01 1.541493988037109375e+01 1.357839679718017578e+01
-2.273544120788574219e+01 1.551707267761230469e+01 1.357205772399902344e+01
-1.708211517333984375e+01 5.002807140350341797e+00 1.097310066223144531e+01
-1.614851760864257812e+01 2.240279674530029297e+00 1.017284107208251953e+01
-1.598310756683349609e+01 1.768923521041870117e+00 1.018195915222167969e+01
-1.468112182617187500e+01 -1.793444871902465820e+00 1.056767559051513672e+01
-1.491667366027832031e+01 -1.464626073837280273e+00 1.067161369323730469e+01
-1.265936851501464844e+01 -4.605431556701660156e+00 1.094949054718017578e+01
-1.246822834014892578e+01 -4.735836982727050781e+00 1.086493015289306641e+01
-6.534258365631103516e+00 -1.198430252075195312e+01 1.028013229370117188e+01
-4.886135578155517578e+00 -1.309195518493652344e+01 1.052919864654541016e+01
-5.276177406311035156e+00 -1.310455513000488281e+01 1.060023975372314453e+01
1.206106472015380859e+01 -6.408563613891601562e+00 9.590676307678222656e+00
1.347531223297119141e+01 -4.349573612213134766e+00 1.064352798461914062e+01
1.363422012329101562e+01 -4.526229858398437500e+00 1.091995048522949219e+01
1.373407268524169922e+01 -4.378908157348632812e+00 1.089964580535888672e+01
1.387353610992431641e+01 -4.224966526031494141e+00 1.090269851684570312e+01
1.405942821502685547e+01 -4.061790943145751953e+00 1.091938400268554688e+01
1.511843299865722656e+01 -1.784888267517089844e+00 1.078430366516113281e+01
1.429272079467773438e+01 -5.053852796554565430e-01 1.031742858886718750e+01
1.441581344604492188e+01 -6.896663308143615723e-01 1.044354724884033203e+01
1.462107658386230469e+01 2.998577117919921875e+00 9.953266143798828125e+00
1.647566413879394531e+01 6.781468391418457031e+00 1.127513694763183594e+01
1.660395050048828125e+01 6.701536178588867188e+00 1.139622783660888672e+01
2.375091934204101562e+01 4.886112689971923828e+00 1.066895484924316406e+01
2.386758804321289062e+01 5.005358695983886719e+00 1.065677165985107422e+01
2.334898948669433594e+01 4.715468883514404297e+00 1.076667308807373047e+01
2.351801681518554688e+01 4.831076622009277344e+00 1.075891399383544922e+01
2.016173744201660156e+01 -5.208122253417968750e+00 1.008679866790771484e+01
1.997197151184082031e+01 -4.979254245758056641e+00 1.023970127105712891e+01
1.954347610473632812e+01 -4.477396965026855469e+00 1.052328586578369141e+01
1.993834877014160156e+01 -5.138096809387207031e+00 1.037870311737060547e+01
2.002984046936035156e+01 -5.271616458892822266e+00 1.039094638824462891e+01
2.014672279357910156e+01 -5.433983802795410156e+00 1.032216072082519531e+01
2.040903854370117188e+01 -5.856192588806152344e+00 1.007167243957519531e+01
1.805826187133789062e+01 -1.123118495941162109e+01 9.825305938720703125e+00
1.794898605346679688e+01 -1.126185226440429688e+01 9.886822700500488281e+00
1.390544223785400391e+01 -1.728016090393066406e+01 9.489452362060546875e+00
1.371449851989746094e+01 -1.734776496887207031e+01 9.622577667236328125e+00
1.352280616760253906e+01 -1.741387748718261719e+01 9.716444015502929688e+00
1.335493659973144531e+01 -1.746842384338378906e+01 9.762763023376464844e+00
1.018345260620117188e+01 -1.908581542968750000e+01 8.946170806884765625e+00
1.034708309173583984e+01 -1.901798439025878906e+01 9.175103187561035156e+00
8.412373542785644531e+00 -1.990675926208496094e+01 8.942499160766601562e+00
7.835069179534912109e+00 -2.029010200500488281e+01 9.431905746459960938e+00
4.643406391143798828e+00 -2.094764328002929688e+01 8.913154602050781250e+00
4.446962356567382812e+00 -2.096463203430175781e+01 8.809371948242187500e+00
6.216237694025039673e-02 -2.176646804809570312e+01 1.017283916473388672e+01
-1.381394118070602417e-01 -2.172202110290527344e+01 9.857928276062011719e+00
-4.614905834197998047e+00 -2.073547172546386719e+01 1.226273345947265625e+01
-4.687660694122314453e+00 -2.070241928100585938e+01 1.233979034423828125e+01
-4.733994007110595703e+00 -2.074647903442382812e+01 1.210251522064208984e+01
-4.796275138854980469e+00 -2.080849075317382812e+01 1.184911632537841797e+01
-5.042874813079833984e+00 -2.082682418823242188e+01 1.151107692718505859e+01
-5.792846679687500000e+00 -2.075782394409179688e+01 1.087343502044677734e+01
-1.037487506866455078e+01 -1.817209243774414062e+01 1.140731811523437500e+01
-1.051761341094970703e+01 -1.823348426818847656e+01 1.107472896575927734e+01
-1.043715190887451172e+01 -1.820533943176269531e+01 1.126177787780761719e+01
-1.062125015258789062e+01 -1.824862289428710938e+01 1.086402988433837891e+01
-1.167996406555175781e+01 -1.811828231811523438e+01 9.435146331787109375e+00
-1.156799888610839844e+01 -1.812674331665039062e+01 9.756376266479492188e+00
-1.161918258666992188e+01 -1.812325859069824219e+01 9.592295646667480469e+00
-1.493758392333984375e+01 -1.429051113128662109e+01 9.302330970764160156e+00
-1.498584270477294922e+01 -1.405919551849365234e+01 9.453308105468750000e+00
-1.492832088470458984e+01 -1.437365055084228516e+01 9.041874885559082031e+00
-1.487214660644531250e+01 -1.457695865631103516e+01 8.910737991333007812e+00
-1.922559356689453125e+01 -9.292778968811035156e+00 8.172523498535156250e+00
-1.913153076171875000e+01 -9.488813400268554688e+00 8.105735778808593750e+00
-1.929433250427246094e+01 -9.088270187377929688e+00 8.286581039428710938e+00
-1.927492713928222656e+01 -9.050769805908203125e+00 8.518308639526367188e+00
-1.933476448059082031e+01 -8.871333122253417969e+00 8.570450782775878906e+00
-1.935544776916503906e+01 -8.961268424987792969e+00 8.306735992431640625e+00
-1.942193222045898438e+01 -8.807114601135253906e+00 8.339887619018554688e+00
-1.949532318115234375e+01 -8.400219917297363281e+00 8.609063148498535156e+00
-1.957558250427246094e+01 -7.726427078247070312e+00 8.875374794006347656e+00
-1.958821678161621094e+01 -7.993382930755615234e+00 8.690824508666992188e+00
-1.955178260803222656e+01 -7.464717864990234375e+00 9.046162605285644531e+00
-2.069174575805664062e+01 -2.558914899826049805e+00 9.961883544921875000e+00
-2.151730155944824219e+01 4.069286823272705078e+00 1.109766006469726562e+01
-2.129176712036132812e+01 4.102631568908691406e+00 1.111268234252929688e+01
-2.152329635620117188e+01 4.328938961029052734e+00 1.147996425628662109e+01
-2.172245979309082031e+01 4.357675552368164062e+00 1.151473808288574219e+01
-1.706548690795898438e+01 5.752764701843261719e+00 1.163214302062988281e+01
-1.723253440856933594e+01 5.621807575225830078e+00 1.165165042877197266e+01
-1.728301620483398438e+01 5.533272743225097656e+00 1.152640533447265625e+01
-1.742850875854492188e+01 5.429903984069824219e+00 1.152055644989013672e+01
-1.755850219726562500e+01 5.342808723449707031e+00 1.149489498138427734e+01
-1.350693607330322266e+01 -4.254073143005371094e+00 1.121995449066162109e+01
-1.238842964172363281e+01 -4.855030536651611328e+00 1.090184688568115234e+01
-1.219458770751953125e+01 -5.037366390228271484e+00 1.081209659576416016e+01
-1.216760444641113281e+01 -5.144235134124755859e+00 1.087923240661621094e+01
-1.176207160949707031e+01 -6.077213287353515625e+00 1.083340167999267578e+01
-1.171780490875244141e+01 -6.351042747497558594e+00 1.089966106414794922e+01
-1.167819404602050781e+01 -6.594691753387451172e+00 1.085894489288330078e+01
-1.167974853515625000e+01 -6.888888359069824219e+00 1.097099781036376953e+01
-1.167143917083740234e+01 -7.149376869201660156e+00 1.096077919006347656e+01
-1.170055389404296875e+01 -7.462104320526123047e+00 1.111520385742187500e+01
-4.663627147674560547e+00 -1.338057899475097656e+01 1.059081077575683594e+01
-4.587743282318115234e+00 -1.372821140289306641e+01 1.072128582000732422e+01
-4.619655609130859375e+00 -1.354543590545654297e+01 1.064633369445800781e+01
-4.410884380340576172e+00 -1.403403759002685547e+01 1.089635086059570312e+01
-4.432211399078369141e+00 -1.384169101715087891e+01 1.079553794860839844e+01
-1.051699161529541016e+00 -1.457343769073486328e+01 1.090138435363769531e+01
-1.244996428489685059e+00 -1.461894321441650391e+01 1.092511177062988281e+01
-1.440309643745422363e+00 -1.470654964447021484e+01 1.097477817535400391e+01
-9.464288949966430664e-01 -1.470638275146484375e+01 1.092416858673095703e+01
-8.315706849098205566e-01 -1.484963226318359375e+01 1.096011638641357422e+01
7.953407764434814453e+00 -1.197459602355957031e+01 1.025793457031250000e+01
7.761178493499755859e+00 -1.100489711761474609e+01 9.172315597534179688e+00
7.594905376434326172e+00 -1.106255340576171875e+01 9.135767936706542969e+00
7.793290138244628906e+00 -1.123076820373535156e+01 9.429191589355468750e+00
7.935222625732421875e+00 -1.118762111663818359e+01 9.474128723144531250e+00
1.322712516784667969e+01 -4.836506366729736328e+00 1.066431045532226562e+01
1.315083694458007812e+01 -5.159075260162353516e+00 1.070683574676513672e+01
1.331758785247802734e+01 -4.748970985412597656e+00 1.069890689849853516e+01
1.346180534362792969e+01 -4.747347831726074219e+00 1.086422061920166016e+01
1.338464927673339844e+01 -4.537199974060058594e+00 1.065878009796142578e+01
1.473442745208740234e+01 3.170856475830078125e+00 1.014945983886718750e+01
1.470706939697265625e+01 3.212927341461181641e+00 9.964805603027343750e+00
1.586180496215820312e+01 4.624142646789550781e+00 1.055136013031005859e+01
1.602698707580566406e+01 4.717048168182373047e+00 1.069468784332275391e+01
2.388764572143554688e+01 5.187103748321533203e+00 1.089281082153320312e+01
2.371522331237792969e+01 5.095434665679931641e+00 1.092513751983642578e+01
2.351073074340820312e+01 4.996500015258789062e+00 1.096483039855957031e+01
2.326412963867187500e+01 4.891316890716552734e+00 1.101298046112060547e+01
2.169495391845703125e+01 3.057837486267089844e+00 1.054766941070556641e+01
1.050422668457031250e+01 -1.889194869995117188e+01 9.694114685058593750e+00
1.027242660522460938e+01 -1.900845527648925781e+01 9.262581825256347656e+00
9.942820549011230469e+00 -1.915953254699707031e+01 9.306531906127929688e+00
9.773424148559570312e+00 -1.925150299072265625e+01 9.161049842834472656e+00
8.315658569335937500e+00 -1.996955680847167969e+01 9.040247917175292969e+00
8.230690002441406250e+00 -2.002257919311523438e+01 9.135665893554687500e+00
8.259965896606445312e+00 -2.006419754028320312e+01 9.303507804870605469e+00
8.138309478759765625e+00 -2.020893478393554688e+01 9.762854576110839844e+00
8.016529083251953125e+00 -2.023866844177246094e+01 9.847070693969726562e+00
8.151347160339355469e+00 -2.015472602844238281e+01 9.551077842712402344e+00
8.156946182250976562e+00 -2.010778045654296875e+01 9.375854492187500000e+00
7.807117938995361328e+00 -2.030051422119140625e+01 9.627918243408203125e+00
7.683009624481201172e+00 -2.034866523742675781e+01 1.012045001983642578e+01
7.714422225952148438e+00 -2.034398269653320312e+01 9.893297195434570312e+00
7.743541717529296875e+00 -2.034407043457031250e+01 9.666862487792968750e+00
1.742265939712524414e+00 -2.159873580932617188e+01 1.033775138854980469e+01
4.598689079284667969e-02 -2.175417137145996094e+01 1.034555435180664062e+01
2.115102484822273254e-02 -2.173513793945312500e+01 1.050586700439453125e+01
-3.309011757373809814e-01 -2.180581092834472656e+01 1.032415103912353516e+01
-4.268397808074951172e+00 -2.107846832275390625e+01 1.139408206939697266e+01
-4.307924270629882812e+00 -2.102089309692382812e+01 1.157971572875976562e+01
-4.358008384704589844e+00 -2.090405845642089844e+01 1.190410900115966797e+01
-4.338084220886230469e+00 -2.095940971374511719e+01 1.175627326965332031e+01
-5.235485553741455078e+00 -2.083330535888671875e+01 1.192758941650390625e+01
-5.488392353057861328e+00 -2.085725402832031250e+01 1.165646457672119141e+01
-5.550409317016601562e+00 -2.082238197326660156e+01 1.143017101287841797e+01
-5.688058376312255859e+00 -2.082585144042968750e+01 1.129628372192382812e+01
-1.731937599182128906e+01 -1.170701408386230469e+01 8.448466300964355469e+00
-1.864427947998046875e+01 -1.036997890472412109e+01 7.911306858062744141e+00
-1.952263259887695312e+01 -8.224380493164062500e+00 8.697465896606445312e+00
-1.947952079772949219e+01 -7.866791725158691406e+00 9.128412246704101562e+00
-1.944381332397460938e+01 -7.625795841217041016e+00 9.345719337463378906e+00
-1.958126449584960938e+01 -8.238431930541992188e+00 8.536303520202636719e+00
-2.104329872131347656e+01 2.985654830932617188e+00 1.067446804046630859e+01
-2.065668869018554688e+01 3.327418088912963867e+00 1.080606555938720703e+01
-2.084000396728515625e+01 3.517511367797851562e+00 1.073198318481445312e+01
-2.069189643859863281e+01 3.621078014373779297e+00 1.077301883697509766e+01
-2.040452194213867188e+01 3.795284032821655273e+00 1.079482746124267578e+01
-2.054605293273925781e+01 3.710597038269042969e+00 1.079344558715820312e+01
-1.767239761352539062e+01 5.272857666015625000e+00 1.145288372039794922e+01
-1.778560066223144531e+01 5.218735694885253906e+00 1.140379905700683594e+01
-1.721417808532714844e+01 5.341009616851806641e+00 1.123266601562500000e+01
-1.744825935363769531e+01 5.129005908966064453e+00 1.115218544006347656e+01
-1.733992385864257812e+01 5.235188484191894531e+00 1.120086765289306641e+01
-1.660889244079589844e+01 4.646507740020751953e+00 1.078705978393554688e+01
-1.508105087280273438e+01 -1.386864066123962402e+00 1.070475292205810547e+01
-1.486876106262207031e+01 -1.355665206909179688e+00 1.072092437744140625e+01
-1.489140129089355469e+01 -3.716998815536499023e+00 1.093159675598144531e+01
-1.511556911468505859e+01 -3.681774854660034180e+00 1.091126346588134766e+01
-1.468612957000732422e+01 -3.747659444808959961e+00 1.093959617614746094e+01
-1.449601364135742188e+01 -3.770462274551391602e+00 1.093824386596679688e+01
-5.482942104339599609e+00 -1.316121673583984375e+01 1.068373394012451172e+01
-5.680181026458740234e+00 -1.323170566558837891e+01 1.078553009033203125e+01
8.068716049194335938e+00 -1.115182876586914062e+01 9.544530868530273438e+00
8.199629783630371094e+00 -1.111975860595703125e+01 9.643823623657226562e+00
8.274435997009277344e+00 -1.131901168823242188e+01 9.910112380981445312e+00
1.162734603881835938e+01 -7.144939422607421875e+00 9.073752403259277344e+00
1.303673171997070312e+01 -5.958485603332519531e+00 1.077252483367919922e+01
1.295867156982421875e+01 -6.286175727844238281e+00 1.074334049224853516e+01
1.302124977111816406e+01 -5.515267372131347656e+00 1.067771720886230469e+01
1.301955413818359375e+01 -5.761696815490722656e+00 1.072522544860839844e+01
1.322133445739746094e+01 -5.390781879425048828e+00 1.088487243652343750e+01
1.317295742034912109e+01 -6.008298873901367188e+00 1.097590351104736328e+01
1.323851108551025391e+01 -5.752331733703613281e+00 1.107054138183593750e+01
1.322305393218994141e+01 -5.575419425964355469e+00 1.096324062347412109e+01
1.428673171997070312e+01 -3.748550891876220703e+00 1.084189701080322266e+01
1.473848819732666016e+01 -3.487578630447387695e+00 1.094206428527832031e+01
1.450997924804687500e+01 -3.605029344558715820e+00 1.088359165191650391e+01
1.493124866485595703e+01 -3.386691331863403320e+00 1.097122001647949219e+01
1.531307792663574219e+01 -2.137009143829345703e+00 1.081372642517089844e+01
1.538009929656982422e+01 -2.224669218063354492e+00 1.082988834381103516e+01
1.653014755249023438e+01 4.876439571380615234e+00 1.119972801208496094e+01
1.605925559997558594e+01 4.649009227752685547e+00 1.084624195098876953e+01
1.715263938903808594e+01 6.051471233367919922e+00 1.162925529479980469e+01
1.719131278991699219e+01 5.893890380859375000e+00 1.157051086425781250e+01
1.666269683837890625e+01 6.571110725402832031e+00 1.142648696899414062e+01
1.671840858459472656e+01 6.449522018432617188e+00 1.145054721832275391e+01
2.182115554809570312e+01 3.555106163024902344e+00 1.035828876495361328e+01
2.188802909851074219e+01 3.362746238708496094e+00 1.032021427154541016e+01
1.787262725830078125e+01 -1.126853656768798828e+01 1.006293487548828125e+01
1.776527023315429688e+01 -1.128292560577392578e+01 1.024098300933837891e+01
1.762489509582519531e+01 -1.129979515075683594e+01 1.042582416534423828e+01
1.698433685302734375e+01 -1.157692146301269531e+01 1.078809642791748047e+01
1.682654380798339844e+01 -1.151334571838378906e+01 1.103621196746826172e+01
1.690970611572265625e+01 -1.154585838317871094e+01 1.090565681457519531e+01
1.669219589233398438e+01 -1.331788063049316406e+01 1.023501205444335938e+01
1.322399234771728516e+01 -1.751030921936035156e+01 9.925178527832031250e+00
1.309773063659667969e+01 -1.754984664916992188e+01 1.007994842529296875e+01
4.953051090240478516e+00 -2.105301094055175781e+01 9.796718597412109375e+00
4.923702239990234375e+00 -2.100952529907226562e+01 9.544157981872558594e+00
4.647867679595947266e+00 -2.101139831542968750e+01 9.178380012512207031e+00
-4.928205490112304688e+00 -2.077615928649902344e+01 1.243155860900878906e+01
-4.965763568878173828e+00 -2.077284622192382812e+01 1.230336761474609375e+01
-5.015500545501708984e+00 -2.077636337280273438e+01 1.214785289764404297e+01
-1.108965778350830078e+01 -1.815479469299316406e+01 1.048551368713378906e+01
-1.124333190917968750e+01 -1.814828491210937500e+01 1.044202423095703125e+01
-1.126563072204589844e+01 -1.814509391784667969e+01 1.025808715820312500e+01
-1.142971038818359375e+01 -1.814445114135742188e+01 1.022821235656738281e+01
-1.146958446502685547e+01 -1.813658332824707031e+01 1.006673812866210938e+01
-1.151894664764404297e+01 -1.813103675842285156e+01 9.913282394409179688e+00
-1.765609931945800781e+01 -1.145818805694580078e+01 8.214221000671386719e+00
-1.810864067077636719e+01 -1.103041934967041016e+01 7.981068611145019531e+00
-2.102732849121093750e+01 4.039059162139892578e+00 1.105651664733886719e+01
-2.078568458557128906e+01 3.984521627426147461e+00 1.098950004577636719e+01
-1.808915901184082031e+01 5.056874275207519531e+00 1.117330169677734375e+01
-1.821719741821289062e+01 5.014959812164306641e+00 1.115417671203613281e+01
-1.803453636169433594e+01 5.123353481292724609e+00 1.131637954711914062e+01
-1.790678977966308594e+01 5.169780254364013672e+00 1.135570335388183594e+01
-1.722254180908203125e+01 5.000880241394042969e+00 1.102099514007568359e+01
-1.736527824401855469e+01 5.007962226867675781e+00 1.106043052673339844e+01
-1.689359855651855469e+01 4.573069572448730469e+00 1.088953590393066406e+01
-1.675032806396484375e+01 4.610005378723144531e+00 1.084964847564697266e+01
-1.637807273864746094e+01 7.697789072990417480e-01 1.040112686157226562e+01
-1.600199890136718750e+01 -1.741083025932312012e+00 1.053414249420166016e+01
-1.588356971740722656e+01 -1.882475137710571289e+00 1.052038764953613281e+01
-1.577369499206542969e+01 -2.318870544433593750e+00 1.054062747955322266e+01
-1.563549709320068359e+01 -2.301667928695678711e+00 1.055761146545410156e+01
-1.546236896514892578e+01 -2.272643327713012695e+00 1.057634258270263672e+01
-1.527591896057128906e+01 -2.238181591033935547e+00 1.058935928344726562e+01
-1.563631534576416016e+01 -4.041740417480468750e+00 1.110382461547851562e+01
-1.535059642791748047e+01 -4.007004737854003906e+00 1.112555408477783203e+01
-1.510461139678955078e+01 -4.000982284545898438e+00 1.115387725830078125e+01
-6.804586887359619141e+00 -1.240481567382812500e+01 1.071788692474365234e+01
-6.654342174530029297e+00 -1.240392971038818359e+01 1.064709949493408203e+01
-5.426591873168945312e+00 -1.361396121978759766e+01 1.087649154663085938e+01
-5.245611667633056641e+00 -1.365578174591064453e+01 1.082904815673828125e+01
-1.418508410453796387e+00 -1.488161659240722656e+01 1.097746944427490234e+01
-7.168884873390197754e-01 -1.500449275970458984e+01 1.101783847808837891e+01
-7.753766179084777832e-01 -1.514623832702636719e+01 1.102929973602294922e+01
2.710155963897705078e+00 -1.468009662628173828e+01 1.089131546020507812e+01
2.527602195739746094e+00 -1.496976375579833984e+01 1.102515411376953125e+01
1.166451835632324219e+01 -7.265632152557373047e+00 9.235969543457031250e+00
1.166941833496093750e+01 -7.519742965698242188e+00 9.374117851257324219e+00
1.425093555450439453e+01 -3.967083454132080078e+00 1.099031066894531250e+01
1.439394283294677734e+01 -3.895311355590820312e+00 1.104314327239990234e+01
1.572200393676757812e+01 -2.129870176315307617e+00 1.103059101104736328e+01
1.544024753570556641e+01 -1.790185928344726562e+00 1.099145698547363281e+01
1.675794219970703125e+01 4.972513675689697266e+00 1.131431961059570312e+01
2.294450950622558594e+01 4.557319641113281250e+00 1.079001712799072266e+01
2.315927505493164062e+01 4.620285034179687500e+00 1.077466964721679688e+01
2.270672607421875000e+01 4.515821933746337891e+00 1.080759143829345703e+01
2.151524162292480469e+01 3.278760671615600586e+00 1.061863613128662109e+01
1.961090278625488281e+01 -4.778592109680175781e+00 1.070349884033203125e+01
1.970463562011718750e+01 -4.870382785797119141e+00 1.059656143188476562e+01
1.981432533264160156e+01 -4.989340782165527344e+00 1.049535179138183594e+01
1.668120574951171875e+01 -1.255315876007080078e+01 1.041192626953125000e+01
1.674778747558593750e+01 -1.252856922149658203e+01 1.036722087860107422e+01
1.677074623107910156e+01 -1.299844074249267578e+01 1.011984348297119141e+01
1.672966957092285156e+01 -1.283842277526855469e+01 1.021298408508300781e+01
1.666111373901367188e+01 -1.317652606964111328e+01 1.035516643524169922e+01
9.996901512145996094e+00 -1.916717720031738281e+01 9.494721412658691406e+00
1.015319156646728516e+01 -1.908130264282226562e+01 9.656378746032714844e+00
1.259672194719314575e-01 -2.172001075744628906e+01 1.068940544128417969e+01
-1.481901705265045166e-01 -2.180509376525878906e+01 1.078547191619873047e+01
-4.074116706848144531e+00 -2.117406082153320312e+01 1.178270149230957031e+01
-4.140249729156494141e+00 -2.109663009643554688e+01 1.197107315063476562e+01
-4.205501079559326172e+00 -2.101759147644042969e+01 1.215073776245117188e+01
-4.515054702758789062e+00 -2.073394584655761719e+01 1.234666347503662109e+01
-4.464396953582763672e+00 -2.078522682189941406e+01 1.217218685150146484e+01
-4.411023616790771484e+00 -2.084522628784179688e+01 1.202706527709960938e+01
-9.230060577392578125e+00 -1.890653991699218750e+01 1.133792495727539062e+01
-9.284540176391601562e+00 -1.883565711975097656e+01 1.159503173828125000e+01
-1.074011611938476562e+01 -1.811579132080078125e+01 1.142815017700195312e+01
-1.084624004364013672e+01 -1.813222312927246094e+01 1.124910545349121094e+01
-1.090788173675537109e+01 -1.813983345031738281e+01 1.102969932556152344e+01
-1.104549884796142578e+01 -1.814773559570312500e+01 1.095556926727294922e+01
-1.107322692871093750e+01 -1.814906311035156250e+01 1.071348285675048828e+01
-1.519678688049316406e+01 -1.374003887176513672e+01 9.386723518371582031e+00
-1.509206390380859375e+01 -1.350611686706542969e+01 9.698741912841796875e+00
-1.514747905731201172e+01 -1.361891746520996094e+01 9.544836997985839844e+00
-1.847963142395019531e+01 -1.057596778869628906e+01 7.943472385406494141e+00
-1.867656517028808594e+01 -1.021854114532470703e+01 8.134138107299804688e+00
-1.885313606262207031e+01 -9.949009895324707031e+00 8.252188682556152344e+00
-1.889658355712890625e+01 -9.892086029052734375e+00 8.026016235351562500e+00
-1.911037445068359375e+01 -9.452678680419921875e+00 8.412127494812011719e+00
-1.919977951049804688e+01 -9.245633125305175781e+00 8.466919898986816406e+00
-2.132617378234863281e+01 4.302400112152099609e+00 1.142641448974609375e+01
-2.097332382202148438e+01 4.296845912933349609e+00 1.143870735168457031e+01
-2.084744644165039062e+01 4.320367813110351562e+00 1.151311397552490234e+01
-2.115303802490234375e+01 4.314256191253662109e+00 1.149118804931640625e+01
-1.739922142028808594e+01 4.062604904174804688e+00 1.094352436065673828e+01
-1.567753028869628906e+01 -1.891233205795288086e+00 1.054775524139404297e+01
-1.600102615356445312e+01 -2.777117967605590820e+00 1.066833591461181641e+01
-1.533974742889404297e+01 -3.731774568557739258e+00 1.087983131408691406e+01
-1.554875755310058594e+01 -3.774507045745849609e+00 1.083887577056884766e+01
-1.574071788787841797e+01 -3.808501005172729492e+00 1.079400539398193359e+01
-1.590229511260986328e+01 -3.829319477081298828e+00 1.075348567962646484e+01
-6.159917831420898438e+00 -1.358584785461425781e+01 1.112977218627929688e+01
-5.870727062225341797e+00 -1.330755138397216797e+01 1.089916610717773438e+01
-1.514602780342102051e+00 -1.502897071838378906e+01 1.102576923370361328e+01
-1.600821852684020996e+00 -1.518551635742187500e+01 1.108745765686035156e+01
-1.690810680389404297e+00 -1.532715892791748047e+01 1.116408061981201172e+01
6.530373573303222656e+00 -1.317761802673339844e+01 1.064918136596679688e+01
6.370229721069335938e+00 -1.333066749572753906e+01 1.069650650024414062e+01
6.355916500091552734e+00 -1.351927375793457031e+01 1.076206779479980469e+01
1.302252769470214844e+01 -6.411356925964355469e+00 1.079918003082275391e+01
1.308283901214599609e+01 -6.530771732330322266e+00 1.084863471984863281e+01
1.317395210266113281e+01 -6.225965976715087891e+00 1.099559402465820312e+01
1.318352794647216797e+01 -6.416503906250000000e+00 1.102098178863525391e+01
1.307435035705566406e+01 -7.023763656616210938e+00 1.092757511138916016e+01
1.556552600860595703e+01 -2.416724920272827148e+00 1.087562942504882812e+01
1.571588611602783203e+01 -2.535206317901611328e+00 1.090727424621582031e+01
1.590052795410156250e+01 -2.528848409652709961e+00 1.093140029907226562e+01
1.728109359741210938e+01 5.566689491271972656e+00 1.144800090789794922e+01
1.722921562194824219e+01 5.731417655944824219e+00 1.150138568878173828e+01
1.697466659545898438e+01 6.198509693145751953e+00 1.157364368438720703e+01
1.682963180541992188e+01 6.336487770080566406e+00 1.151199913024902344e+01
1.962064361572265625e+01 -3.082302808761596680e+00 1.076162528991699219e+01
1.745888519287109375e+01 -1.131182003021240234e+01 1.062714481353759766e+01
1.667330551147460938e+01 -1.216691684722900391e+01 1.079234313964843750e+01
1.671181106567382812e+01 -1.200619983673095703e+01 1.089558601379394531e+01
1.663526153564453125e+01 -1.232437610626220703e+01 1.068063163757324219e+01
1.211577701568603516e+01 -1.777169227600097656e+01 1.066495227813720703e+01
1.065562820434570312e+01 -1.882345771789550781e+01 9.874828338623046875e+00
1.070191192626953125e+01 -1.876099586486816406e+01 1.008204078674316406e+01
5.387969017028808594e+00 -2.098562812805175781e+01 9.886087417602539062e+00
5.089024066925048828e+00 -2.110456657409667969e+01 1.031332397460937500e+01
5.011800765991210938e+00 -2.108603286743164062e+01 1.005320930480957031e+01
1.595731616020202637e+00 -2.163985824584960938e+01 1.050374794006347656e+01
2.460765093564987183e-01 -2.165140151977539062e+01 1.152230548858642578e+01
5.943313613533973694e-02 -2.173063278198242188e+01 1.115596199035644531e+01
-4.185336112976074219e+00 -2.109935379028320312e+01 1.227691841125488281e+01
-9.425447463989257812e+00 -1.872563552856445312e+01 1.137824630737304688e+01
-9.483496665954589844e+00 -1.860153770446777344e+01 1.160010910034179688e+01
-9.514350891113281250e+00 -1.842849540710449219e+01 1.184324645996093750e+01
-9.462438583374023438e+00 -1.854196357727050781e+01 1.172146034240722656e+01
-1.005719280242919922e+01 -1.812500572204589844e+01 1.182125663757324219e+01
-1.511384201049804688e+01 -1.332116889953613281e+01 9.870450973510742188e+00
-1.499763202667236328e+01 -1.391257858276367188e+01 9.635854721069335938e+00
-1.500118923187255859e+01 -1.379927730560302734e+01 9.774136543273925781e+00
-1.500814533233642578e+01 -1.364672851562500000e+01 9.765120506286621094e+00
-1.499735546112060547e+01 -1.356566715240478516e+01 9.907685279846191406e+00
-1.719130134582519531e+01 -1.174517631530761719e+01 8.858079910278320312e+00
-1.728931999206542969e+01 -1.168705940246582031e+01 8.758083343505859375e+00
-1.740491485595703125e+01 -1.161298847198486328e+01 8.658432960510253906e+00
-1.753845214843750000e+01 -1.152001190185546875e+01 8.560587882995605469e+00
-1.942959403991699219e+01 -8.571769714355468750e+00 8.832342147827148438e+00
-1.941041183471679688e+01 -7.399650096893310547e+00 9.441252708435058594e+00
-1.952176666259765625e+01 -7.214251041412353516e+00 9.196912765502929688e+00
-2.049054336547851562e+01 4.171915054321289062e+00 1.110104846954345703e+01
-2.061641883850097656e+01 4.217380046844482422e+00 1.122176551818847656e+01
-1.848293685913085938e+01 4.976020812988281250e+00 1.125850105285644531e+01
-1.864745903015136719e+01 4.909024238586425781e+00 1.121277141571044922e+01
-1.709568405151367188e+01 3.995876550674438477e+00 1.097996425628662109e+01
-4.847487926483154297e+00 -1.399421405792236328e+01 1.091677284240722656e+01
-4.772153377532958984e+00 -1.431700706481933594e+01 1.113931846618652344e+01
-4.243205070495605469e+00 -1.439519691467285156e+01 1.113055229187011719e+01
3.607107639312744141e+00 -1.458255386352539062e+01 1.100394916534423828e+01
3.703404188156127930e+00 -1.485618495941162109e+01 1.112704944610595703e+01
3.574946165084838867e+00 -1.471679115295410156e+01 1.101882266998291016e+01
1.496326446533203125e+01 -3.557208061218261719e+00 1.106555080413818359e+01
1.526558589935302734e+01 -3.527616024017333984e+00 1.115374660491943359e+01
1.550467967987060547e+01 -3.506131887435913086e+00 1.120372676849365234e+01
1.570171737670898438e+01 -3.481350183486938477e+00 1.121865653991699219e+01
1.586715221405029297e+01 -3.450773239135742188e+00 1.120730972290039062e+01
1.903873443603515625e+01 -3.823979139328002930e+00 1.063807392120361328e+01
1.890710067749023438e+01 -3.624318838119506836e+00 1.064458560943603516e+01
1.939837265014648438e+01 -4.177089214324951172e+00 1.056372261047363281e+01
1.710186386108398438e+01 -1.133528804779052734e+01 1.100444602966308594e+01
1.702194786071777344e+01 -1.132862091064453125e+01 1.121447372436523438e+01
1.728148269653320312e+01 -1.131899642944335938e+01 1.083072948455810547e+01
1.664363288879394531e+01 -1.192851257324218750e+01 1.104145622253417969e+01
1.298296260833740234e+01 -1.758043098449707031e+01 1.022124862670898438e+01
1.286957263946533203e+01 -1.760218048095703125e+01 1.034831523895263672e+01
1.275098991394042969e+01 -1.761412811279296875e+01 1.045185184478759766e+01
1.262549781799316406e+01 -1.761641693115234375e+01 1.052441406250000000e+01
7.549382209777832031e+00 -2.041063308715820312e+01 1.025328826904296875e+01
7.479442119598388672e+00 -2.042290878295898438e+01 1.041743659973144531e+01
1.885894060134887695e+00 -2.164582824707031250e+01 1.116371631622314453e+01
2.074840307235717773e+00 -2.165502929687500000e+01 1.077199363708496094e+01
3.340003192424774170e-01 -2.160474395751953125e+01 1.116937637329101562e+01
3.169451057910919189e-01 -2.159801864624023438e+01 1.160049438476562500e+01
-1.684875106811523438e+01 -1.190591144561767578e+01 9.289298057556152344e+00
-1.688897132873535156e+01 -1.189198970794677734e+01 9.120618820190429688e+00
-1.698993301391601562e+01 -1.185189437866210938e+01 9.042674064636230469e+00
-1.709334564208984375e+01 -1.180036163330078125e+01 8.958074569702148438e+00
-2.007779121398925781e+01 3.669590473175048828e+00 1.090688037872314453e+01
-1.629321479797363281e+01 -2.435252666473388672e-01 1.056765937805175781e+01
-1.652308464050292969e+01 -1.086285829544067383e+00 1.052741336822509766e+01
-1.643420410156250000e+01 -9.847689867019653320e-01 1.055382919311523438e+01
-9.230921745300292969e+00 -1.070080184936523438e+01 1.078340244293212891e+01
-9.412543296813964844e+00 -1.058984565734863281e+01 1.080178260803222656e+01
-8.710865020751953125e+00 -1.133815002441406250e+01 1.087215805053710938e+01
-8.811139106750488281e+00 -1.116107463836669922e+01 1.082951259613037109e+01
-5.609539031982421875e+00 -1.363862800598144531e+01 1.096825599670410156e+01
-5.942811012268066406e+00 -1.393894386291503906e+01 1.130520820617675781e+01
-1.139076590538024902e+00 -1.538964080810546875e+01 1.108592128753662109e+01
-9.695987105369567871e-01 -1.550212478637695312e+01 1.115365123748779297e+01
-6.318438053131103516e-01 -1.548306465148925781e+01 1.119916725158691406e+01
1.627615737915039062e+01 4.296604156494140625e+00 1.182213020324707031e+01
1.614052772521972656e+01 4.220117568969726562e+00 1.173513126373291016e+01
1.632673835754394531e+01 4.221856117248535156e+00 1.187245178222656250e+01
1.731060791015625000e+01 5.150086402893066406e+00 1.151443099975585938e+01
1.743226051330566406e+01 5.105703830718994141e+00 1.165578842163085938e+01
1.688582611083984375e+01 4.953633308410644531e+00 1.149404716491699219e+01
1.710330963134765625e+01 5.050777912139892578e+00 1.151813030242919922e+01
2.262290382385253906e+01 4.746550083160400391e+00 1.123113441467285156e+01
2.244364547729492188e+01 4.708709716796875000e+00 1.118980312347412109e+01
2.225981712341308594e+01 4.681613445281982422e+00 1.115636062622070312e+01
2.210486984252929688e+01 4.684907913208007812e+00 1.126992034912109375e+01
2.132621955871582031e+01 3.521375179290771484e+00 1.065943336486816406e+01
2.115900421142578125e+01 3.652198076248168945e+00 1.079590129852294922e+01
1.925621604919433594e+01 -3.128191232681274414e+00 1.074943542480468750e+01
1.905351066589355469e+01 -3.106173992156982422e+00 1.081603908538818359e+01
1.884575843811035156e+01 -3.089610815048217773e+00 1.087825202941894531e+01
1.899801063537597656e+01 -3.466126441955566406e+00 1.060795402526855469e+01
1.919612312316894531e+01 -4.397966384887695312e+00 1.085518836975097656e+01
1.934358406066894531e+01 -4.517004966735839844e+00 1.078811454772949219e+01
1.948182296752929688e+01 -4.644568920135498047e+00 1.073456382751464844e+01
1.235479831695556641e+01 -1.756199645996093750e+01 1.097671890258789062e+01
1.249126815795898438e+01 -1.761948013305664062e+01 1.057502460479736328e+01
1.082138061523437500e+01 -1.867825317382812500e+01 1.027539730072021484e+01
1.091688919067382812e+01 -1.860363197326660156e+01 1.043853855133056641e+01
1.069676971435546875e+01 -1.872018623352050781e+01 1.048932838439941406e+01
1.056882286071777344e+01 -1.883212661743164062e+01 1.026346111297607422e+01
7.997030258178710938e+00 -2.030246353149414062e+01 1.013328075408935547e+01
7.894763946533203125e+00 -2.032345008850097656e+01 1.023952579498291016e+01
7.806444168090820312e+00 -2.033645820617675781e+01 1.031770133972167969e+01
7.764513492584228516e+00 -2.038020324707031250e+01 1.057874011993408203e+01
1.265423655509948730e+00 -2.152722358703613281e+01 1.138472557067871094e+01
1.183537244796752930e+00 -2.148183822631835938e+01 1.153177452087402344e+01
5.607574582099914551e-01 -2.148929214477539062e+01 1.152776908874511719e+01
7.110663652420043945e-01 -2.145017242431640625e+01 1.163234615325927734e+01
-4.501823902130126953e+00 -2.074984550476074219e+01 1.277830696105957031e+01
-4.876018524169921875e+00 -2.079444122314453125e+01 1.261736106872558594e+01
-4.836500167846679688e+00 -2.082618141174316406e+01 1.279613208770751953e+01
-4.613342285156250000e+00 -2.073737907409667969e+01 1.279787826538085938e+01
-4.785121440887451172e+00 -2.098562240600585938e+01 1.335048007965087891e+01
-9.766968727111816406e+00 -1.801894950866699219e+01 1.211738777160644531e+01
-9.664997100830078125e+00 -1.806531906127929688e+01 1.213080978393554688e+01
-9.881026268005371094e+00 -1.802310371398925781e+01 1.205236053466796875e+01
-9.935308456420898438e+00 -1.813649559020996094e+01 1.189635753631591797e+01
-1.023867893218994141e+01 -1.801306533813476562e+01 1.198600673675537109e+01
-1.040324974060058594e+01 -1.805086326599121094e+01 1.185789871215820312e+01
-1.056965732574462891e+01 -1.808457374572753906e+01 1.173815536499023438e+01
-1.059303283691406250e+01 -1.809167289733886719e+01 1.156686687469482422e+01
-1.496150398254394531e+01 -1.329134559631347656e+01 1.016026687622070312e+01
-1.493140792846679688e+01 -1.317456436157226562e+01 1.032996273040771484e+01
-1.768626785278320312e+01 -1.140220165252685547e+01 8.479815483093261719e+00
-1.798227310180664062e+01 -1.111644268035888672e+01 8.319833755493164062e+00
-1.808827972412109375e+01 -1.099821186065673828e+01 8.238870620727539062e+00
-1.819368934631347656e+01 -1.089259910583496094e+01 8.248601913452148438e+00
-1.914376831054687500e+01 -6.263420104980468750e+00 9.892667770385742188e+00
-1.926818847656250000e+01 -4.924655914306640625e+00 9.923217773437500000e+00
-1.935910224914550781e+01 4.602475643157958984e+00 1.100571441650390625e+01
-1.727285194396972656e+01 3.459453821182250977e+00 1.084092044830322266e+01
-1.634299850463867188e+01 2.505362927913665771e-01 1.049509811401367188e+01
-1.674840354919433594e+01 -1.515389442443847656e+00 1.059652805328369141e+01
-1.651886367797851562e+01 -1.792554020881652832e+00 1.054875278472900391e+01
-1.038203239440917969e+01 -1.056745624542236328e+01 1.118557453155517578e+01
-1.004143428802490234e+01 -1.057984447479248047e+01 1.105712890625000000e+01
-9.782629013061523438e+00 -1.062361717224121094e+01 1.097830963134765625e+01
-9.566379547119140625e+00 -1.069193649291992188e+01 1.092507553100585938e+01
-9.375656127929687500e+00 -1.078617286682128906e+01 1.089135169982910156e+01
-9.612306594848632812e+00 -1.050694751739501953e+01 1.084060478210449219e+01
-9.210267066955566406e+00 -1.091287422180175781e+01 1.088125133514404297e+01
-9.063214302062988281e+00 -1.105948925018310547e+01 1.088466453552246094e+01
-9.072523117065429688e+00 -1.084243965148925781e+01 1.078682708740234375e+01
-8.933462142944335938e+00 -1.099856948852539062e+01 1.080362892150878906e+01
-8.632909774780273438e+00 -1.152413368225097656e+01 1.092919254302978516e+01
-8.416275978088378906e+00 -1.173793506622314453e+01 1.096770381927490234e+01
-8.487052917480468750e+00 -1.154327297210693359e+01 1.090582561492919922e+01
-8.362581253051757812e+00 -1.193190288543701172e+01 1.103526496887207031e+01
-8.333383560180664062e+00 -1.212025165557861328e+01 1.110965156555175781e+01
-8.570062637329101562e+00 -1.229610729217529297e+01 1.125681972503662109e+01
-8.565858840942382812e+00 -1.247795200347900391e+01 1.134006786346435547e+01
-8.559209823608398438e+00 -1.267899322509765625e+01 1.142686462402343750e+01
-8.318885803222656250e+00 -1.230628871917724609e+01 1.118980216979980469e+01
-8.305131912231445312e+00 -1.249727535247802734e+01 1.127438259124755859e+01
-4.732612133026123047e+00 -1.450017833709716797e+01 1.126055717468261719e+01
-1.420631051063537598e+00 -1.540549373626708984e+01 1.113510704040527344e+01
-1.554364800453186035e+00 -1.552077484130859375e+01 1.124761486053466797e+01
-1.783347964286804199e+00 -1.535226821899414062e+01 1.122646808624267578e+01
-1.888960957527160645e+00 -1.577912807464599609e+01 1.152167034149169922e+01
-1.708443164825439453e+00 -1.564286708831787109e+01 1.137712764739990234e+01
-3.786603510379791260e-01 -1.611173248291015625e+01 1.162651062011718750e+01
3.325005054473876953e+00 -1.490088558197021484e+01 1.099977302551269531e+01
3.475862026214599609e+00 -1.502836608886718750e+01 1.111881160736083984e+01
7.275384902954101562e+00 -1.310601902008056641e+01 1.081974697113037109e+01
1.614681243896484375e+01 -3.075244426727294922e+00 1.097777938842773438e+01
1.594020652770996094e+01 4.015949249267578125e+00 1.169395637512207031e+01
1.600768661499023438e+01 4.140446662902832031e+00 1.168053913116455078e+01
1.764131927490234375e+01 5.135472297668457031e+00 1.164720344543457031e+01
2.170349884033203125e+01 4.669365406036376953e+00 1.121231079101562500e+01
2.133063316345214844e+01 4.239252090454101562e+00 1.071557521820068359e+01
2.097516822814941406e+01 3.795687913894653320e+00 1.095122051239013672e+01
2.078276062011718750e+01 4.038432121276855469e+00 1.099345874786376953e+01
1.892651176452636719e+01 -4.186339378356933594e+00 1.092837524414062500e+01
1.904742813110351562e+01 -4.293004035949707031e+00 1.096135139465332031e+01
1.657918739318847656e+01 -1.248130416870117188e+01 1.110807991027832031e+01
1.656314849853515625e+01 -1.233147525787353516e+01 1.121527004241943359e+01
1.101287078857421875e+01 -1.844104385375976562e+01 1.084223461151123047e+01
1.113213062286376953e+01 -1.836830902099609375e+01 1.093190956115722656e+01
1.117278194427490234e+01 -1.825245857238769531e+01 1.117018318176269531e+01
1.043493556976318359e+01 -1.892311096191406250e+01 1.004383277893066406e+01
1.029643535614013672e+01 -1.900451850891113281e+01 9.841593742370605469e+00
7.257732868194580078e+00 -2.049176025390625000e+01 1.058238792419433594e+01
5.427104949951171875e+00 -2.101310920715332031e+01 1.093893623352050781e+01
5.264450073242187500e+00 -2.110604095458984375e+01 1.083126640319824219e+01
5.689322471618652344e+00 -2.082553291320800781e+01 1.157681846618652344e+01
5.493238449096679688e+00 -2.099365425109863281e+01 1.120211219787597656e+01
5.176078319549560547e+00 -2.110840225219726562e+01 1.056869792938232422e+01
1.688091039657592773e+00 -2.158408355712890625e+01 1.143035984039306641e+01
